# .PCD v0.7 - Point Cloud Data file format
VERSION 0.7
FIELDS x y z rgb
SIZE 4 4 4 4
TYPE F F F U
COUNT 1 1 1 1
WIDTH 996
HEIGHT 1
VIEWPOINT 0 0 0 1 0 0 0
POINTS 996
DATA ascii
-0.068010367 -0.0029122166 0.54500002 4286282366
-0.067153402 -0.0029122166 0.54500002 4286084987
-0.066296436 -0.0029122166 0.54500002 4285953401
-0.065559544 -0.0029175601 0.546 4285953401
-0.064700998 -0.0029175601 0.546 4285887608
-0.063842461 -0.0029175601 0.546 4285558643
-0.062983923 -0.0029175601 0.546 4285427057
-0.062239174 -0.0029229037 0.54700005 4285361264
-0.061266847 -0.0029175601 0.546 4285032299
-0.060297672 -0.0029122166 0.54500002 4284834920
-0.059331641 -0.0029068731 0.54400003 4284834150
-0.058368754 -0.0029015297 0.54300004 4284373599
-0.05730309 -0.0028908425 0.54100001 4284307806
-0.056243714 -0.0028801556 0.53900003 4284044634
-0.055087853 -0.002864125 0.53600001 4283847253
-0.053941432 -0.0028480946 0.53300005 4283780175
-0.052904069 -0.0028374072 0.53100002 4283121471
-0.051774938 -0.0028213765 0.528 4281476646
-0.050751735 -0.0028106896 0.52600002 4280752923
-0.049829729 -0.0028053464 0.52500004 4280621851
-0.048910871 -0.0028000029 0.52400005 4280161560
-0.048086926 -0.0028000029 0.52400005 4279898388
-0.047172781 -0.002794659 0.523 4279898388
-0.046261784 -0.0027893155 0.52200001 4279832595
-0.045353934 -0.0027839721 0.52100003 4279766802
-0.044534706 -0.0027839721 0.52100003 4279701009
-0.043631569 -0.0027786286 0.52000004 4279898388
-0.042813916 -0.0027786286 0.52000004 4280095507
-0.041915499 -0.0027732854 0.51900005 4280751892
-0.041099414 -0.0027732854 0.51900005 4281080857
-0.04020571 -0.0027679414 0.51800001 4281539861
-0.039391197 -0.0027679414 0.51800001 4282064922
-0.038576689 -0.0027679414 0.51800001 4282064922
-0.037762173 -0.0027679414 0.51800001 4282195736
-0.03694766 -0.0027679414 0.51800001 4282458908
-0.036133152 -0.0027679414 0.51800001 4282524701
-0.035318639 -0.0027679414 0.51800001 4282458908
-0.034504127 -0.0027679414 0.51800001 4282195990
-0.033689618 -0.0027679414 0.51800001 4282129684
-0.032875106 -0.0027679414 0.51800001 4281932305
-0.032060593 -0.0027679414 0.51800001 4281932305
-0.031246083 -0.0027679414 0.51800001 4282063121
-0.030490324 -0.0027732854 0.51900005 4283247393
-0.029674239 -0.0027732854 0.51900005 4283707944
-0.028913759 -0.0027786286 0.52000004 4284563505
-0.028150132 -0.0027839721 0.52100003 4284695089
-0.027330905 -0.0027839721 0.52100003 4282457613
-0.02656256 -0.0027893155 0.52200001 4283378715
-0.025791071 -0.002794659 0.523 4284168747
-0.025016442 -0.0028000029 0.52400005 4284235310
-0.024238665 -0.0028053464 0.52500004 4284432689
-0.023457743 -0.0028106896 0.52600002 4284630581
-0.022716699 -0.0028213765 0.528 4284631612
-0.021969369 -0.0028320639 0.53000003 4284828991
-0.021215746 -0.0028427506 0.53200001 4284501823
-0.020455835 -0.002853438 0.53400004 4283188532
-0.019689633 -0.002864125 0.53600001 4282727981
-0.018917143 -0.0028748121 0.53800005 4285492066
-0.018138362 -0.002885499 0.54000002 4286676088
-0.017321274 -0.0028908425 0.54100001 4286412918
-0.016501043 -0.0028961862 0.54200006 4286412918
-0.015677666 -0.0029015297 0.54300004 4286412918
-0.014823845 -0.0029015297 0.54300004 4286412918
-0.01399575 -0.0029068731 0.54400003 4286412918
-0.013140355 -0.0029068731 0.54400003 4286281332
-0.012284962 -0.0029068731 0.54400003 4286281332
-0.011450578 -0.0029122166 0.54500002 4286215539
-0.010593611 -0.0029122166 0.54500002 4286083953
-0.0097366441 -0.0029122166 0.54500002 4286018160
-0.0088796774 -0.0029122166 0.54500002 4286018160
-0.0080079911 -0.0029068731 0.54400003 4285754988
-0.0071394485 -0.0029015297 0.54300004 4285688425
-0.006274051 -0.0028961862 0.54200006 4285753703
-0.0054117981 -0.0028908425 0.54100001 4285554009
-0.0045526903 -0.002885499 0.54000002 4285093458
-0.0036898691 -0.0028748121 0.53800005 4284825909
-0.002838623 -0.0028694682 0.537 4285414187
-0.0019905225 -0.002864125 0.53600001 4285477922
-0.0011455663 -0.0028587815 0.53500003 4285543715
-0.00030375514 -0.002853438 0.53400004 4285739293
0.00053591491 -0.002853438 0.53400004 4285935900
0.0013755849 -0.002853438 0.53400004 4285935898
0.0022111065 -0.0028480946 0.53300005 4285870105
0.0030492041 -0.0028480946 0.53300005 4285935895
0.0038800081 -0.0028427506 0.53200001 4285870102
0.0047165332 -0.0028427506 0.53200001 4285870102
0.0055426206 -0.0028374072 0.53100002 4285870102
0.0063775731 -0.0028374072 0.53100002 4285804309
0.0072125257 -0.0028374072 0.53100002 4285607187
0.0080323238 -0.0028320639 0.53000003 4285213715
0.0088657038 -0.0028320639 0.53000003 4285147922
0.0096990839 -0.0028320639 0.53000003 4285217830
0.010532465 -0.0028320639 0.53000003 4285617215
0.011365845 -0.0028320639 0.53000003 4285156664
0.012199225 -0.0028320639 0.53000003 4284632632
0.013032605 -0.0028320639 0.53000003 4284502073
0.013892148 -0.0028374072 0.53100002 4284635196
0.014727101 -0.0028374072 0.53100002 4283714094
0.015562054 -0.0028374072 0.53100002 4282661406
0.016397005 -0.0028374072 0.53100002 4282463514
0.017231958 -0.0028374072 0.53100002 4281475595
0.018066911 -0.0028374072 0.53100002 4281475595
0.018866267 -0.0028320639 0.53000003 4281607953
0.019699648 -0.0028320639 0.53000003 4282003224
0.020533029 -0.0028320639 0.53000003 4282266396
0.021326097 -0.0028267205 0.52900004 4282069787
0.022116015 -0.0028213765 0.528 4282135580
0.02294625 -0.0028213765 0.528 4282726432
0.023731455 -0.0028160331 0.52700001 4282923811
0.024513515 -0.0028106896 0.52600002 4283776040
0.025340606 -0.0028106896 0.52600002 4284299558
0.026117949 -0.0028053464 0.52500004 4285020712
0.026943466 -0.0028053464 0.52500004 4285218091
0.027716091 -0.0028000029 0.52400005 4285545771
0.028540039 -0.0028000029 0.52400005 4285611818
0.029307945 -0.002794659 0.523 4285611816
0.030072708 -0.0027893155 0.52200001 4285677609
0.030834327 -0.0027839721 0.52100003 4285349929
0.031653553 -0.0027839721 0.52100003 4285284136
0.032410454 -0.0027786286 0.52000004 4285153064
0.033164211 -0.0027732854 0.51900005 4284889892
0.033980295 -0.0027732854 0.51900005 4284166939
0.03479638 -0.0027732854 0.51900005 4284298525
0.035612464 -0.0027732854 0.51900005 4284035353
0.036428548 -0.0027732854 0.51900005 4284035353
0.037244629 -0.0027732854 0.51900005 4284494620
0.038134046 -0.0027786286 0.52000004 4284756507
0.038951702 -0.0027786286 0.52000004 4284756507
0.039845843 -0.0027839721 0.52100003 4285215775
0.040665071 -0.0027839721 0.52100003 4285215515
0.041563921 -0.0027893155 0.52200001 4285411609
0.042465918 -0.002794659 0.523 4285608988
0.043371066 -0.0028000029 0.52400005 4285806106
0.044195011 -0.0028000029 0.52400005 4286001943
0.045104869 -0.0028053464 0.52500004 4286067736
0.046017874 -0.0028106896 0.52600002 4286264856
0.046844963 -0.0028106896 0.52600002 4286396696
0.047762685 -0.0028160331 0.52700001 4286594327
0.04868355 -0.0028213765 0.528 4286791706
0.049513783 -0.0028213765 0.528 4286857754
0.050439373 -0.0028267205 0.52900004 4285810465
0.051368099 -0.0028320639 0.53000003 4284823570
0.052299973 -0.0028374072 0.53100002 4282987026
0.053234991 -0.0028427506 0.53200001 4282529818
0.054274794 -0.002853438 0.53400004 4282792990
0.055217672 -0.0028587815 0.53500003 4282662174
0.056163698 -0.002864125 0.53600001 4282793760
0.057112869 -0.0028694682 0.537 4283910956
0.058065191 -0.0028748121 0.53800005 4284766265
0.059020646 -0.0028801556 0.53900003 4284963126
0.059979249 -0.002885499 0.54000002 4285226552
0.060941 -0.0028908425 0.54100001 4285358138
0.061791673 -0.0028908425 0.54100001 4285555517
0.062642351 -0.0028908425 0.54100001 4285687103
0.063610397 -0.0028961862 0.54200006 4285687619
0.064462647 -0.0028961862 0.54200006 4285753412
0.065435402 -0.0029015297 0.54300004 4285951320
0.066167146 -0.0028961862 0.54200006 4286149996
0.067019396 -0.0028961862 0.54200006 4286281582
0.067871645 -0.0028961862 0.54200006 4286347636
0.068723895 -0.0028961862 0.54200006 4286282613
0.069447771 -0.0028908425 0.54100001 4286282615
0.070298448 -0.0028908425 0.54100001 4286216822
0.071017608 -0.002885499 0.54000002 4286085236
0.071866713 -0.002885499 0.54000002 4285953397
0.072715819 -0.002885499 0.54000002 4285821811
0.07342869 -0.0028801556 0.53900003 4285821811
0.074276224 -0.0028801556 0.53900003 4285953397
0.074984379 -0.0028748121 0.53800005 4286084983
0.07583034 -0.0028748121 0.53800005 4286478971
0.076676302 -0.0028748121 0.53800005 4286544764
0.077522263 -0.0028748121 0.53800005 4286544764
0.078368217 -0.0028748121 0.53800005 4286544764
0.079066932 -0.0028694682 0.537 4286871150
0.079762511 -0.002864125 0.53600001 4286410599
0.080605328 -0.002864125 0.53600001 4285948240
0.081296191 -0.0028587815 0.53500003 4285750863
0.082137428 -0.0028587815 0.53500003 4286014035
0.082978673 -0.0028587815 0.53500003 4282529334
0.083663248 -0.002853438 0.53400004 4282006596
0.084502913 -0.002853438 0.53400004 4281284676
0.085182771 -0.0028480946 0.53300005 4281153090
0.086182252 -0.002853438 0.53400004 4281087558
0.087021925 -0.002853438 0.53400004 4281153351
0.08786159 -0.002853438 0.53400004 4281416523
0.088701263 -0.002853438 0.53400004 4281548109
0.089540936 -0.002853438 0.53400004 4281482830
0.090380602 -0.002853438 0.53400004 4281548625
0.091220275 -0.002853438 0.53400004 4281351762
0.09205994 -0.002853438 0.53400004 4281154383
0.093073577 -0.0028587815 0.53500003 4281022797
0.093914822 -0.0028587815 0.53500003 4280957517
0.094756067 -0.0028587815 0.53500003 4280957517
0.095597304 -0.0028587815 0.53500003 4280957517
0.096618801 -0.002864125 0.53600001 4280891724
0.097461626 -0.002864125 0.53600001 4280694345
0.098304443 -0.002864125 0.53600001 4280760138
0.099147253 -0.002864125 0.53600001 4281417037
0.09999007 -0.002864125 0.53600001 4282008651
0.10083289 -0.002864125 0.53600001 4281811272
0.1016757 -0.002864125 0.53600001 4281744192
0.10232725 -0.0028587815 0.53500003 4282529846
0.10316849 -0.0028587815 0.53500003 4286475363
0.10381532 -0.002853438 0.53400004 4285817433
0.10445902 -0.0028480946 0.53300005 4286277723
0.10509955 -0.0028427506 0.53200001 4286278236
0.10593607 -0.0028427506 0.53200001 4286739557
0.1067726 -0.0028427506 0.53200001 4287134315
0.10740685 -0.0028374072 0.53100002 4287134315
0.10844565 -0.0028427506 0.53200001 4287660405
0.1094876 -0.0028480946 0.53300005 4284369472
0.1103257 -0.0028480946 0.53300005 4286343262
0.11158092 -0.0028587815 0.53500003 4286671967
0.11263229 -0.002864125 0.53600001 4287002990
0.11389852 -0.0028748121 0.53800005 4287989885
0 -0 0 4282732092
-0.12404628 -0.0020326234 0.53900003 4285160523
-0.12319875 -0.0020326234 0.53900003 4285618244
-0.12212422 -0.0020288522 0.53800005 4283710762
-0.12150368 -0.0020326234 0.53900003 4287066205
-0.12065616 -0.0020326234 0.53900003 4286475613
-0.11958634 -0.0020288522 0.53800005 4286475613
-0.11874039 -0.0020288522 0.53800005 4286607199
-0.11789443 -0.0020288522 0.53800005 4286870371
-0.11704846 -0.0020288522 0.53800005 4286804578
-0.1162025 -0.0020288522 0.53800005 4286673762
-0.11535655 -0.0020288522 0.53800005 4286739555
-0.11429773 -0.0020250811 0.537 4286805348
-0.11345334 -0.0020250811 0.537 4286805350
-0.11260895 -0.0020250811 0.537 4286673764
-0.11155645 -0.0020213099 0.53600001 4286739557
-0.11071363 -0.0020213099 0.53600001 4286936936
-0.10987081 -0.0020213099 0.53600001 4286805350
-0.109028 -0.0020213099 0.53600001 4286673764
-0.10818519 -0.0020213099 0.53600001 4286607971
-0.10734237 -0.0020213099 0.53600001 4286673764
-0.10649956 -0.0020213099 0.53600001 4286739557
-0.10565674 -0.0020213099 0.53600001 4286739557
-0.10500947 -0.0020250811 0.537 4286739557
-0.10416508 -0.0020250811 0.537 4286739557
-0.1033207 -0.0020250811 0.537 4286607971
-0.10247631 -0.0020250811 0.537 4286673764
-0.10182119 -0.0020288522 0.53800005 4286673764
-0.10097524 -0.0020288522 0.53800005 4286673764
-0.10012928 -0.0020288522 0.53800005 4286739557
-0.099467859 -0.0020326234 0.53900003 4286607971
-0.098620325 -0.0020326234 0.53900003 4286542178
-0.097954184 -0.0020363946 0.54000002 4286673764
-0.097105078 -0.0020363946 0.54000002 4286607971
-0.096255973 -0.0020363946 0.54000002 4286015580
-0.095583543 -0.0020401655 0.54100001 4283711796
-0.094732866 -0.0020401655 0.54100001 4284961863
-0.093882188 -0.0020401655 0.54100001 4286144336
-0.093031511 -0.0020401655 0.54100001 4286342230
-0.092180833 -0.0020401655 0.54100001 4286871404
-0.091498986 -0.0020439369 0.54200006 4287002990
-0.090646736 -0.0020439369 0.54200006 4286741365
-0.089794487 -0.0020439369 0.54200006 4286478971
-0.088942237 -0.0020439369 0.54200006 4286544766
-0.088089988 -0.0020439369 0.54200006 4286478973
-0.087237738 -0.0020439369 0.54200006 4286478973
-0.086385489 -0.0020439369 0.54200006 4286348159
-0.085533239 -0.0020439369 0.54200006 4286348159
-0.084524743 -0.0020401655 0.54100001 4286413952
-0.083674066 -0.0020401655 0.54100001 4286413952
-0.082670301 -0.0020363946 0.54000002 4286348159
-0.081821196 -0.0020363946 0.54000002 4286348159
-0.08097209 -0.0020363946 0.54000002 4286413952
-0.080122985 -0.0020363946 0.54000002 4286545284
-0.079273887 -0.0020363946 0.54000002 4286676870
-0.078424782 -0.0020363946 0.54000002 4286676870
-0.077575676 -0.0020363946 0.54000002 4286545284
-0.076726571 -0.0020363946 0.54000002 4286545284
-0.075877465 -0.0020363946 0.54000002 4286479491
-0.075167306 -0.0020401655 0.54100001 4286413698
-0.074316628 -0.0020401655 0.54100001 4286479491
-0.073601753 -0.0020439369 0.54200006 4286479491
-0.072749503 -0.0020439369 0.54200006 4286479491
-0.072029904 -0.0020477078 0.54300004 4286479491
-0.07130716 -0.002051479 0.54400003 4286347905
-0.070451766 -0.002051479 0.54400003 4286347905
-0.069596373 -0.002051479 0.54400003 4286347905
-0.068867341 -0.0020552499 0.54500002 4286347905
-0.068010367 -0.0020552499 0.54500002 4286084733
-0.067153402 -0.0020552499 0.54500002 4286018940
-0.066296436 -0.0020552499 0.54500002 4285887354
-0.06543947 -0.0020552499 0.54500002 4285821815
-0.064582504 -0.0020552499 0.54500002 4285756022
-0.063842461 -0.002059021 0.546 4285427057
-0.062983923 -0.002059021 0.546 4285427057
-0.062125385 -0.002059021 0.546 4285032299
-0.061266847 -0.002059021 0.546 4284966506
-0.060297672 -0.0020552499 0.54500002 4284637541
-0.059331641 -0.002051479 0.54400003 4284505955
-0.058261264 -0.0020439369 0.54200006 4284373599
-0.05730309 -0.0020401655 0.54100001 4284242013
-0.056139369 -0.0020288522 0.53800005 4284110427
-0.055087853 -0.0020213099 0.53600001 4283847251
-0.053941432 -0.0020099969 0.53300005 4283582796
-0.05280444 -0.0019986834 0.53000003 4283253057
-0.051774938 -0.0019911411 0.528 4281608232
-0.050751735 -0.001983599 0.52600002 4280817946
-0.049829729 -0.0019798279 0.52500004 4280424472
-0.048910871 -0.001976057 0.52400005 4280095767
-0.047995154 -0.0019722856 0.523 4279898388
-0.047172781 -0.0019722856 0.523 4279767055
-0.046261784 -0.0019685146 0.52200001 4279767055
-0.045440983 -0.0019685146 0.52200001 4279766802
-0.044534706 -0.0019647435 0.52100003 4279701009
-0.043631569 -0.0019609726 0.52000004 4279832595
-0.042813916 -0.0019609726 0.52000004 4280095505
-0.041915499 -0.0019572014 0.51900005 4280620304
-0.041099414 -0.0019572014 0.51900005 4280949269
-0.04020571 -0.0019534302 0.51800001 4281671447
-0.039391197 -0.0019534302 0.51800001 4282064920
-0.038502216 -0.0019496591 0.51700002 4282064920
-0.037762173 -0.0019534302 0.51800001 4282327322
-0.03694766 -0.0019534302 0.51800001 4282590494
-0.036133152 -0.0019534302 0.51800001 4282656287
-0.035318639 -0.0019534302 0.51800001 4282656287
-0.034504127 -0.0019534302 0.51800001 4282458908
-0.033689618 -0.0019534302 0.51800001 4282327322
-0.032875106 -0.0019534302 0.51800001 4281998357
-0.032060593 -0.0019534302 0.51800001 4282064150
-0.031246083 -0.0019534302 0.51800001 4282524442
-0.030490324 -0.0019572014 0.51900005 4283576356
-0.029674239 -0.0019572014 0.51900005 4283642149
-0.028913759 -0.0019609726 0.52000004 4283839780
-0.028150132 -0.0019647435 0.52100003 4283970852
-0.027330905 -0.0019647435 0.52100003 4282852371
-0.02656256 -0.0019685146 0.52200001 4282983957
-0.025791071 -0.0019722856 0.523 4284563505
-0.025016442 -0.001976057 0.52400005 4284630068
-0.024238665 -0.0019798279 0.52500004 4284630068
-0.023457743 -0.001983599 0.52600002 4284696374
-0.022716699 -0.0019911411 0.528 4284697403
-0.021969369 -0.0019986834 0.53000003 4285223747
-0.021175867 -0.0020024546 0.53100002 4282989867
-0.020455835 -0.0020137678 0.53400004 4282794287
-0.019689633 -0.0020213099 0.53600001 4282662701
-0.018881978 -0.0020250811 0.537 4284637270
-0.018104773 -0.0020326234 0.53900003 4286676088
-0.017321274 -0.0020401655 0.54100001 4286412918
-0.016501043 -0.0020439369 0.54200006 4286412918
-0.015677666 -0.0020477078 0.54300004 4286478711
-0.014823845 -0.0020477078 0.54300004 4286412918
-0.01399575 -0.002051479 0.54400003 4286412918
-0.013140355 -0.002051479 0.54400003 4286412918
-0.012284962 -0.002051479 0.54400003 4286281332
-0.011450578 -0.0020552499 0.54500002 4286281332
-0.010593611 -0.0020552499 0.54500002 4286149746
-0.0097366441 -0.0020552499 0.54500002 4286083953
-0.0088796774 -0.0020552499 0.54500002 4286018160
-0.0080079911 -0.002051479 0.54400003 4285952367
-0.0071394485 -0.0020477078 0.54300004 4285754218
-0.006274051 -0.0020439369 0.54200006 4285753703
-0.0054017948 -0.0020363946 0.54000002 4286014045
-0.0045442595 -0.0020326234 0.53900003 4284829771
-0.0036898691 -0.0020288522 0.53800005 4284890419
-0.002838623 -0.0020250811 0.537 4285282086
-0.0019905225 -0.0020213099 0.53600001 4285608736
-0.0011455663 -0.002017539 0.53500003 4285608736
-0.00030375514 -0.0020137678 0.53400004 4285739293
0.00053591491 -0.0020137678 0.53400004 4285870107
0.0013730089 -0.0020099969 0.53300005 4285870107
0.0022111065 -0.0020099969 0.53300005 4285870107
0.0030492041 -0.0020099969 0.53300005 4285869848
0.0038800081 -0.0020062255 0.53200001 4285804055
0.0047165332 -0.0020062255 0.53200001 4285870102
0.0055426206 -0.0020024546 0.53100002 4285870102
0.0063775731 -0.0020024546 0.53100002 4285804309
0.0072125257 -0.0020024546 0.53100002 4285607187
0.0080323238 -0.0019986834 0.53000003 4285082129
0.0088657038 -0.0019986834 0.53000003 4284884750
0.0096990839 -0.0019986834 0.53000003 4285744174
0.010532465 -0.0019986834 0.53000003 4285616961
0.011365845 -0.0019986834 0.53000003 4285551168
0.012199225 -0.0019986834 0.53000003 4284830011
0.013032605 -0.0019986834 0.53000003 4284633659
0.013892148 -0.0020024546 0.53100002 4284634429
0.014727101 -0.0020024546 0.53100002 4285226566
0.015562054 -0.0020024546 0.53100002 4282792225
0.016397005 -0.0020024546 0.53100002 4281607181
0.017231958 -0.0020024546 0.53100002 4281606668
0.018032886 -0.0019986834 0.53000003 4281409289
0.018866267 -0.0019986834 0.53000003 4281606670
0.019699648 -0.0019986834 0.53000003 4282002711
0.020494288 -0.0019949125 0.52900004 4282134297
0.02128578 -0.0019911411 0.528 4282265883
0.022116015 -0.0019911411 0.528 4282331676
0.022902792 -0.0019873702 0.52700001 4282790942
0.023686424 -0.001983599 0.52600002 4283119907
0.024466911 -0.0019798279 0.52500004 4283972903
0.02529243 -0.0019798279 0.52500004 4284627751
0.026068199 -0.001976057 0.52400005 4285218089
0.026892146 -0.001976057 0.52400005 4285283882
0.027663196 -0.0019722856 0.523 4285611818
0.02848557 -0.0019722856 0.523 4285742889
0.029251907 -0.0019685146 0.52200001 4285939498
0.030072708 -0.0019685146 0.52200001 4286071084
0.030834327 -0.0019647435 0.52100003 4286136877
0.031653553 -0.0019647435 0.52100003 4286136877
0.032410454 -0.0019609726 0.52000004 4286203440
0.033164211 -0.0019572014 0.51900005 4286269233
0.033980295 -0.0019572014 0.51900005 4286203953
0.03479638 -0.0019572014 0.51900005 4285875758
0.035612464 -0.0019572014 0.51900005 4285677609
0.036428548 -0.0019572014 0.51900005 4285085472
0.037244629 -0.0019572014 0.51900005 4284756248
0.038134046 -0.0019609726 0.52000004 4284952857
0.038951702 -0.0019609726 0.52000004 4284952857
0.039845843 -0.0019647435 0.52100003 4285083929
0.040665071 -0.0019647435 0.52100003 4285149209
0.041563921 -0.0019685146 0.52200001 4285543195
0.042465918 -0.0019722856 0.523 4285740574
0.043371066 -0.001976057 0.52400005 4285937692
0.044195011 -0.001976057 0.52400005 4286134299
0.045104869 -0.0019798279 0.52500004 4286134299
0.046017874 -0.001983599 0.52600002 4286265113
0.046844963 -0.001983599 0.52600002 4286265367
0.047762685 -0.0019873702 0.52700001 4286462487
0.04868355 -0.0019911411 0.528 4286594073
0.049513783 -0.0019911411 0.528 4286791963
0.050439373 -0.0019949125 0.52900004 4286204453
0.051368099 -0.0019986834 0.53000003 4284428042
0.052299973 -0.0020024546 0.53100002 4283118612
0.053234991 -0.0020062255 0.53200001 4282726684
0.054274794 -0.0020137678 0.53400004 4282924063
0.055217672 -0.002017539 0.53500003 4282991139
0.056163698 -0.0020213099 0.53600001 4283318819
0.05721923 -0.0020288522 0.53800005 4283449376
0.058173116 -0.0020326234 0.53900003 4284567857
0.059130147 -0.0020363946 0.54000002 4285291832
0.060090322 -0.0020401655 0.54100001 4285423416
0.060941 -0.0020401655 0.54100001 4285489209
0.061905898 -0.0020439369 0.54200006 4285555002
0.062758148 -0.0020439369 0.54200006 4285620795
0.063610397 -0.0020439369 0.54200006 4285687367
0.06458158 -0.0020477078 0.54300004 4285884746
0.065435402 -0.0020477078 0.54300004 4286280549
0.066289224 -0.0020477078 0.54300004 4286215791
0.067143045 -0.0020477078 0.54300004 4286478963
0.067871645 -0.0020439369 0.54200006 4286413431
0.068723895 -0.0020439369 0.54200006 4286479224
0.069447771 -0.0020401655 0.54100001 4286479224
0.070298448 -0.0020401655 0.54100001 4286413431
0.071149126 -0.0020401655 0.54100001 4286479224
0.071866713 -0.0020363946 0.54000002 4286215799
0.072715819 -0.0020363946 0.54000002 4286018420
0.073564924 -0.0020363946 0.54000002 4286018420
0.074276224 -0.0020326234 0.53900003 4286084213
0.075123757 -0.0020326234 0.53900003 4286150006
0.07597129 -0.0020326234 0.53900003 4286610557
0.076818824 -0.0020326234 0.53900003 4286544764
0.07766635 -0.0020326234 0.53900003 4286610557
0.078368217 -0.0020288522 0.53800005 4286544764
0.079214178 -0.0020288522 0.53800005 4286806129
0.079911321 -0.0020250811 0.537 4286477164
0.080605328 -0.0020213099 0.53600001 4286079826
0.081448145 -0.0020213099 0.53600001 4285685068
0.082137428 -0.002017539 0.53500003 4285948240
0.082978673 -0.002017539 0.53500003 4282660402
0.083663248 -0.0020137678 0.53400004 4282137410
0.084502913 -0.0020137678 0.53400004 4281678662
0.085342586 -0.0020137678 0.53400004 4281415490
0.086182252 -0.0020137678 0.53400004 4281218629
0.087021925 -0.0020137678 0.53400004 4281284935
0.08786159 -0.0020137678 0.53400004 4281548109
0.088701263 -0.0020137678 0.53400004 4281548109
0.089540936 -0.0020137678 0.53400004 4281613902
0.090380602 -0.0020137678 0.53400004 4281548623
0.091391094 -0.002017539 0.53500003 4281482830
0.092232339 -0.002017539 0.53500003 4281023051
0.093073577 -0.002017539 0.53500003 4281022797
0.093914822 -0.002017539 0.53500003 4281154383
0.094756067 -0.002017539 0.53500003 4281022797
0.095775992 -0.0020213099 0.53600001 4281089103
0.096618801 -0.0020213099 0.53600001 4281089103
0.097461626 -0.0020213099 0.53600001 4281482832
0.098304443 -0.0020213099 0.53600001 4281877590
0.099147253 -0.0020213099 0.53600001 4281746002
0.09999007 -0.0020213099 0.53600001 4282008397
0.10083289 -0.0020213099 0.53600001 4281745225
0.10148601 -0.002017539 0.53500003 4281808440
0.10232725 -0.002017539 0.53500003 4284897360
0.10297566 -0.0020137678 0.53400004 4286146650
0.10381532 -0.0020137678 0.53400004 4285949271
0.10445902 -0.0020099969 0.53300005 4286278234
0.10509955 -0.0020062255 0.53200001 4286212441
0.10593607 -0.0020062255 0.53200001 4286936936
0.1067726 -0.0020062255 0.53200001 4287134315
0.10760912 -0.0020062255 0.53200001 4287069035
0.10844565 -0.0020062255 0.53200001 4287594614
0.1094876 -0.0020099969 0.53300005 4284172606
0.1103257 -0.0020099969 0.53300005 4285883224
0.11137236 -0.0020137678 0.53400004 4286671967
0.11263229 -0.0020213099 0.53600001 4287002477
0.11389852 -0.0020288522 0.53800005 4287726200
-0.12404628 -0.0011850912 0.53900003 4285290824
-0.12297018 -0.0011828926 0.53800005 4285749832
-0.12212422 -0.0011828926 0.53800005 4284434231
-0.12127826 -0.0011828926 0.53800005 4287000158
-0.1204323 -0.0011828926 0.53800005 4286607199
-0.11958634 -0.0011828926 0.53800005 4286607199
-0.11874039 -0.0011828926 0.53800005 4286804578
-0.11789443 -0.0011828926 0.53800005 4286870371
-0.11704846 -0.0011828926 0.53800005 4286870371
-0.1162025 -0.0011828926 0.53800005 4286607969
-0.11514212 -0.0011806939 0.537 4286673762
-0.11429773 -0.0011806939 0.537 4286673762
-0.11345334 -0.0011806939 0.537 4286673762
-0.11260895 -0.0011806939 0.537 4286805350
-0.11155645 -0.0011784951 0.53600001 4286805350
-0.11071363 -0.0011784951 0.53600001 4286871656
-0.10987081 -0.0011784951 0.53600001 4286740070
-0.109028 -0.0011784951 0.53600001 4286608484
-0.10818519 -0.0011784951 0.53600001 4286542691
-0.10734237 -0.0011784951 0.53600001 4286542691
-0.10649956 -0.0011784951 0.53600001 4286607971
-0.10565674 -0.0011784951 0.53600001 4286542178
-0.10481393 -0.0011784951 0.53600001 4286673764
-0.10416508 -0.0011806939 0.537 4286542178
-0.1033207 -0.0011806939 0.537 4286607971
-0.10247631 -0.0011806939 0.537 4286607971
-0.10163192 -0.0011806939 0.537 4286607971
-0.10097524 -0.0011828926 0.53800005 4286607971
-0.10012928 -0.0011828926 0.53800005 4286607971
-0.099467859 -0.0011850912 0.53900003 4286542178
-0.098620325 -0.0011850912 0.53900003 4286542178
-0.097954184 -0.0011872899 0.54000002 4286607971
-0.097105078 -0.0011872899 0.54000002 4286344799
-0.096255973 -0.0011872899 0.54000002 4284502341
-0.095583543 -0.0011894886 0.54100001 4284171833
-0.094732866 -0.0011894886 0.54100001 4285619279
-0.093882188 -0.0011894886 0.54100001 4286210644
-0.093031511 -0.0011894886 0.54100001 4286211928
-0.092180833 -0.0011894886 0.54100001 4286937197
-0.091498986 -0.0011916874 0.54200006 4287002990
-0.090646736 -0.0011916874 0.54200006 4286742135
-0.089794487 -0.0011916874 0.54200006 4286610810
-0.088942237 -0.0011916874 0.54200006 4286610557
-0.088089988 -0.0011916874 0.54200006 4286544764
-0.087237738 -0.0011916874 0.54200006 4286544766
-0.086385489 -0.0011916874 0.54200006 4286479743
-0.085533239 -0.0011916874 0.54200006 4286413950
-0.084524743 -0.0011894886 0.54100001 4286413952
-0.083674066 -0.0011894886 0.54100001 4286413952
-0.082823396 -0.0011894886 0.54100001 4286348159
-0.081821196 -0.0011872899 0.54000002 4286413952
-0.08097209 -0.0011872899 0.54000002 4286479745
-0.080122985 -0.0011872899 0.54000002 4286479745
-0.079273887 -0.0011872899 0.54000002 4286676870
-0.078424782 -0.0011872899 0.54000002 4286545284
-0.077575676 -0.0011872899 0.54000002 4286545284
-0.076726571 -0.0011872899 0.54000002 4286479491
-0.076017976 -0.0011894886 0.54100001 4286479491
-0.075167306 -0.0011894886 0.54100001 4286479491
-0.074454002 -0.0011916874 0.54200006 4286479491
-0.073601753 -0.0011916874 0.54200006 4286479491
-0.072883725 -0.001193886 0.54300004 4286479491
-0.072029904 -0.001193886 0.54300004 4286413698
-0.07130716 -0.0011960847 0.54400003 4286347905
-0.070451766 -0.0011960847 0.54400003 4286347905
-0.069596373 -0.0011960847 0.54400003 4286282112
-0.068867341 -0.0011982834 0.54500002 4286282112
-0.067885578 -0.0011960847 0.54400003 4286018940
-0.067153402 -0.0011982834 0.54500002 4285953147
-0.066296436 -0.0011982834 0.54500002 4285887354
-0.06543947 -0.0011982834 0.54500002 4285755768
-0.064582504 -0.0011982834 0.54500002 4285624182
-0.063725539 -0.0011982834 0.54500002 4285427057
-0.062868573 -0.0011982834 0.54500002 4285361264
-0.062011603 -0.0011982834 0.54500002 4285032299
-0.061154637 -0.0011982834 0.54500002 4284900713
-0.060187034 -0.0011960847 0.54400003 4284571748
-0.059222575 -0.001193886 0.54300004 4284636771
-0.058261264 -0.0011916874 0.54200006 4284307806
-0.057197168 -0.0011872899 0.54000002 4284242013
-0.056139369 -0.0011828926 0.53800005 4283913048
-0.05498508 -0.0011762965 0.53500003 4283847251
-0.053840224 -0.0011697004 0.53200001 4283516743
-0.05280444 -0.0011653031 0.53000003 4283318850
-0.051774938 -0.0011609057 0.528 4281608232
-0.050751735 -0.0011565083 0.52600002 4280817946
-0.049829729 -0.0011543097 0.52500004 4280424472
-0.048910871 -0.001152111 0.52400005 4280096020
-0.047995154 -0.0011499122 0.523 4279898641
-0.047172781 -0.0011499122 0.523 4279767055
-0.046261784 -0.0011477136 0.52200001 4279701262
-0.045440983 -0.0011477136 0.52200001 4279767055
-0.044534706 -0.0011455149 0.52100003 4279767055
-0.043715477 -0.0011455149 0.52100003 4279898641
-0.042813916 -0.0011433163 0.52000004 4280095505
-0.041915499 -0.0011411177 0.51900005 4280620304
-0.041099414 -0.0011411177 0.51900005 4280949269
-0.04020571 -0.0011389188 0.51800001 4281868056
-0.039391197 -0.0011389188 0.51800001 4281999127
-0.038502216 -0.0011367202 0.51700002 4282064920
-0.037689272 -0.0011367202 0.51700002 4282524955
-0.03694766 -0.0011389188 0.51800001 4282721821
-0.036063395 -0.0011367202 0.51700002 4282853407
-0.035318639 -0.0011389188 0.51800001 4282853407
-0.034504127 -0.0011389188 0.51800001 4282590748
-0.033689618 -0.0011389188 0.51800001 4282459162
-0.032875106 -0.0011389188 0.51800001 4282327576
-0.032060593 -0.0011389188 0.51800001 4281998611
-0.031246083 -0.0011389188 0.51800001 4282261270
-0.030490324 -0.0011411177 0.51900005 4283182370
-0.029674239 -0.0011411177 0.51900005 4283511335
-0.028913759 -0.0011433163 0.52000004 4283576608
-0.028150132 -0.0011455149 0.52100003 4283707680
-0.027330905 -0.0011455149 0.52100003 4283576094
-0.02656256 -0.0011477136 0.52200001 4283510301
-0.025791071 -0.0011499122 0.523 4284234540
-0.025016442 -0.001152111 0.52400005 4284761654
-0.024238665 -0.0011543097 0.52500004 4284893240
-0.023457743 -0.0011565083 0.52600002 4284696374
-0.022673676 -0.001158707 0.52700001 4284763450
-0.021927917 -0.0011631044 0.52900004 4285552966
-0.021175867 -0.0011675018 0.53100002 4282529316
-0.02041753 -0.0011718991 0.53300005 4282400299
-0.019652897 -0.0011762965 0.53500003 4282466092
-0.018881978 -0.0011806939 0.537 4284176719
-0.018104773 -0.0011850912 0.53900003 4286545015
-0.017289257 -0.0011872899 0.54000002 4286281332
-0.016501043 -0.0011916874 0.54200006 4286412918
-0.015677666 -0.001193886 0.54300004 4286478711
-0.014823845 -0.001193886 0.54300004 4286478711
-0.01399575 -0.0011960847 0.54400003 4286412918
-0.013140355 -0.0011960847 0.54400003 4286478711
-0.012284962 -0.0011960847 0.54400003 4286412918
-0.011429568 -0.0011960847 0.54400003 4286215539
-0.010574173 -0.0011960847 0.54400003 4286215539
-0.0097187785 -0.0011960847 0.54400003 4286215539
-0.0088633848 -0.0011960847 0.54400003 4286083953
-0.0079932706 -0.001193886 0.54300004 4285952367
-0.0071394485 -0.001193886 0.54300004 4285689195
-0.0062624747 -0.0011894886 0.54100001 4285753703
-0.0054017948 -0.0011872899 0.54000002 4286604898
-0.0045442595 -0.0011850912 0.53900003 4284170557
-0.0036898691 -0.0011828926 0.53800005 4284954667
-0.0028333371 -0.0011784951 0.53600001 4285412642
-0.0019868088 -0.0011762965 0.53500003 4285608477
-0.0011455663 -0.0011762965 0.53500003 4285542684
-0.00030375514 -0.0011740979 0.53400004 4285739293
0.00053491135 -0.0011718991 0.53300005 4285870107
0.0013730089 -0.0011718991 0.53300005 4285804314
0.0022111065 -0.0011718991 0.53300005 4285804314
0.0030492041 -0.0011718991 0.53300005 4285738521
0.0038800081 -0.0011697004 0.53200001 4285804055
0.0047165332 -0.0011697004 0.53200001 4285935898
0.0055426206 -0.0011675018 0.53100002 4285935898
0.0063775731 -0.0011675018 0.53100002 4286199324
0.0072125257 -0.0011675018 0.53100002 4286265887
0.0080323238 -0.0011653031 0.53000003 4285872158
0.0088657038 -0.0011653031 0.53000003 4285872158
0.0096990839 -0.0011653031 0.53000003 4285743143
0.010532465 -0.0011653031 0.53000003 4285679926
0.011365845 -0.0011653031 0.53000003 4285877305
0.012199225 -0.0011653031 0.53000003 4285484859
0.013057195 -0.0011675018 0.53100002 4285157177
0.013892148 -0.0011675018 0.53100002 4284960314
0.014727101 -0.0011675018 0.53100002 4285026107
0.015562054 -0.0011675018 0.53100002 4285290562
0.016366126 -0.0011653031 0.53000003 4284763450
0.017199507 -0.0011653031 0.53000003 4282130447
0.018032886 -0.0011653031 0.53000003 4282130447
0.018866267 -0.0011653031 0.53000003 4282064654
0.019662479 -0.0011631044 0.52900004 4282064654
0.020455545 -0.0011609057 0.528 4282459412
0.02128578 -0.0011609057 0.528 4283051549
0.022074129 -0.001158707 0.52700001 4282593563
0.022859335 -0.0011565083 0.52600002 4282855705
0.023641394 -0.0011543097 0.52500004 4283905827
0.024466911 -0.0011543097 0.52500004 4284103206
0.025244255 -0.001152111 0.52400005 4284693283
0.02601845 -0.0011499122 0.523 4285415209
0.026840823 -0.0011499122 0.523 4285349416
0.027610304 -0.0011477136 0.52200001 4285807912
0.028431106 -0.0011477136 0.52200001 4285742373
0.029195869 -0.0011455149 0.52100003 4286070824
0.030015098 -0.0011455149 0.52100003 4286202410
0.030834327 -0.0011455149 0.52100003 4286333994
0.031592801 -0.0011433163 0.52000004 4286399787
0.032410454 -0.0011433163 0.52000004 4286401073
0.033164211 -0.0011411177 0.51900005 4286598452
0.033980295 -0.0011411177 0.51900005 4286532659
0.03479638 -0.0011411177 0.51900005 4286203694
0.035612464 -0.0011411177 0.51900005 4286202924
0.036428548 -0.0011411177 0.51900005 4286202924
0.037316393 -0.0011433163 0.52000004 4285873445
0.038134046 -0.0011433163 0.52000004 4285018136
0.039026611 -0.0011455149 0.52100003 4285018136
0.039845843 -0.0011455149 0.52100003 4285083416
0.04074312 -0.0011477136 0.52200001 4285149207
0.041563921 -0.0011477136 0.52200001 4285477402
0.042465918 -0.0011499122 0.523 4285608988
0.043371066 -0.001152111 0.52400005 4285740826
0.044279352 -0.0011543097 0.52500004 4285609236
0.045104869 -0.0011543097 0.52500004 4285609236
0.046017874 -0.0011565083 0.52600002 4285608975
0.046844963 -0.0011565083 0.52600002 4286200342
0.047762685 -0.001158707 0.52700001 4286397205
0.04868355 -0.0011609057 0.528 4286594584
0.049513783 -0.0011609057 0.528 4286595354
0.050439373 -0.0011631044 0.52900004 4286073639
0.051368099 -0.0011653031 0.53000003 4284034056
0.052299973 -0.0011675018 0.53100002 4283249428
0.053335059 -0.0011718991 0.53300005 4282529307
0.054274794 -0.0011740979 0.53400004 4282989858
0.055217672 -0.0011762965 0.53500003 4283188520
0.05626848 -0.0011806939 0.537 4283450405
0.05721923 -0.0011828926 0.53800005 4284698929
0.058281042 -0.0011872899 0.54000002 4284501550
0.059239645 -0.0011894886 0.54100001 4285488697
0.060201399 -0.0011916874 0.54200006 4285686074
0.061053649 -0.0011916874 0.54200006 4285751867
0.062020116 -0.001193886 0.54300004 4285686074
0.062873937 -0.001193886 0.54300004 4285555002
0.063727759 -0.001193886 0.54300004 4285753164
0.06458158 -0.001193886 0.54300004 4286213715
0.065435402 -0.001193886 0.54300004 4286412137
0.066289224 -0.001193886 0.54300004 4286478709
0.067143045 -0.001193886 0.54300004 4286544502
0.067871645 -0.0011916874 0.54200006 4286413431
0.068723895 -0.0011916874 0.54200006 4286545017
0.069576144 -0.0011916874 0.54200006 4286479224
0.070298448 -0.0011894886 0.54100001 4286479224
0.071149126 -0.0011894886 0.54100001 4286808189
0.071866713 -0.0011872899 0.54000002 4286018420
0.072715819 -0.0011872899 0.54000002 4286018420
0.073564924 -0.0011872899 0.54000002 4286018420
0.07441403 -0.0011872899 0.54000002 4286084213
0.075263128 -0.0011872899 0.54000002 4286084215
0.076112233 -0.0011872899 0.54000002 4287531661
0.076961339 -0.0011872899 0.54000002 4286807938
0.077810444 -0.0011872899 0.54000002 4286544764
0.078513883 -0.0011850912 0.53900003 4286545017
0.079214178 -0.0011828926 0.53800005 4286741365
0.079911321 -0.0011806939 0.537 4286412400
0.080755711 -0.0011806939 0.537 4286804578
0.081448145 -0.0011784951 0.53600001 4285751115
0.082290955 -0.0011784951 0.53600001 4285619529
0.082978673 -0.0011762965 0.53500003 4283647034
0.083819918 -0.0011762965 0.53500003 4282465602
0.084502913 -0.0011740979 0.53400004 4281941575
0.085342586 -0.0011740979 0.53400004 4282138954
0.086182252 -0.0011740979 0.53400004 4281942606
0.087184884 -0.0011762965 0.53500003 4281811020
0.088026129 -0.0011762965 0.53500003 4281942865
0.088867366 -0.0011762965 0.53500003 4282074451
0.089708611 -0.0011762965 0.53500003 4282206037
0.090549856 -0.0011762965 0.53500003 4282009174
0.091391094 -0.0011762965 0.53500003 4281483602
0.092232339 -0.0011762965 0.53500003 4281220430
0.093073577 -0.0011762965 0.53500003 4281022797
0.093914822 -0.0011762965 0.53500003 4281022797
0.094756067 -0.0011762965 0.53500003 4281022797
0.095775992 -0.0011784951 0.53600001 4281220176
0.096618801 -0.0011784951 0.53600001 4281286736
0.097461626 -0.0011784951 0.53600001 4282074453
0.098304443 -0.0011784951 0.53600001 4282206039
0.099147253 -0.0011784951 0.53600001 4282074192
0.09999007 -0.0011784951 0.53600001 4282071612
0.10064477 -0.0011762965 0.53500003 4285951072
0.10148601 -0.0011762965 0.53500003 4285819486
0.10232725 -0.0011762965 0.53500003 4285884248
0.10297566 -0.0011740979 0.53400004 4286212441
0.10362092 -0.0011718991 0.53300005 4286212441
0.10445902 -0.0011718991 0.53300005 4287133543
0.10509955 -0.0011697004 0.53200001 4287134313
0.10593607 -0.0011697004 0.53200001 4287069035
0.1065719 -0.0011675018 0.53100002 4287069035
0.10760912 -0.0011697004 0.53200001 4287069035
0.10844565 -0.0011697004 0.53200001 4287134061
0.10928217 -0.0011697004 0.53200001 4284369472
0.1103257 -0.0011718991 0.53300005 4284895816
0.11137236 -0.0011740979 0.53400004 4286606174
0.11242216 -0.0011762965 0.53500003 4286673510
0.11389852 -0.0011828926 0.53800005 4287068268
0 -0 0 4282732092
0 -0 0 4282732092
-0.12381614 -0.00033693298 0.53800005 4285290824
-0.12297018 -0.00033693298 0.53800005 4284828728
-0.12212422 -0.00033693298 0.53800005 4285421898
-0.12127826 -0.00033693298 0.53800005 4286803551
-0.1204323 -0.00033693298 0.53800005 4286542176
-0.11958634 -0.00033693298 0.53800005 4286607969
-0.11874039 -0.00033693298 0.53800005 4286673762
-0.11789443 -0.00033693298 0.53800005 4286673762
-0.11704846 -0.00033693298 0.53800005 4286739555
-0.1162025 -0.00033693298 0.53800005 4286739557
-0.11535655 -0.00033693298 0.53800005 4286673764
-0.11429773 -0.00033630669 0.537 4286607971
-0.11345334 -0.00033630669 0.537 4286673764
-0.11260895 -0.00033630669 0.537 4286740070
-0.11155645 -0.00033568044 0.53600001 4286740070
-0.11071363 -0.00033568044 0.53600001 4286740070
-0.10987081 -0.00033568044 0.53600001 4286674277
-0.109028 -0.00033568044 0.53600001 4286608484
-0.10818519 -0.00033568044 0.53600001 4286674277
-0.10734237 -0.00033568044 0.53600001 4286608484
-0.10649956 -0.00033568044 0.53600001 4286476385
-0.10565674 -0.00033568044 0.53600001 4286476385
-0.10481393 -0.00033568044 0.53600001 4286607971
-0.10416508 -0.00033630669 0.537 4286542178
-0.1033207 -0.00033630669 0.537 4286607971
-0.10247631 -0.00033630669 0.537 4286542178
-0.10182119 -0.00033693298 0.53800005 4286542178
-0.10097524 -0.00033693298 0.53800005 4286542178
-0.10012928 -0.00033693298 0.53800005 4286542178
-0.099467859 -0.00033755924 0.53900003 4286542178
-0.098620325 -0.00033755924 0.53900003 4286476385
-0.097772792 -0.00033755924 0.53900003 4286476385
-0.097105078 -0.00033818552 0.54000002 4286279006
-0.096255973 -0.00033818552 0.54000002 4284369985
-0.095583543 -0.00033881178 0.54100001 4284171833
-0.094732866 -0.00033881178 0.54100001 4286079830
-0.093882188 -0.00033881178 0.54100001 4286144851
-0.093031511 -0.00033881178 0.54100001 4286540895
-0.092180833 -0.00033881178 0.54100001 4286872174
-0.091330156 -0.00033881178 0.54100001 4286937967
-0.090646736 -0.00033943806 0.54200006 4286742135
-0.089794487 -0.00033943806 0.54200006 4286610810
-0.088942237 -0.00033943806 0.54200006 4286544764
-0.088089988 -0.00033943806 0.54200006 4286544764
-0.087237738 -0.00033943806 0.54200006 4286544766
-0.086385489 -0.00033943806 0.54200006 4286413950
-0.085533239 -0.00033943806 0.54200006 4286413950
-0.084680989 -0.00033943806 0.54200006 4286413952
-0.083674066 -0.00033881178 0.54100001 4286348159
-0.082823396 -0.00033881178 0.54100001 4286413952
-0.081972718 -0.00033881178 0.54100001 4286479745
-0.081122041 -0.00033881178 0.54100001 4286545538
-0.080122985 -0.00033818552 0.54000002 4286677124
-0.079273887 -0.00033818552 0.54000002 4286677124
-0.078424782 -0.00033818552 0.54000002 4286677124
-0.077575676 -0.00033818552 0.54000002 4286545538
-0.076868653 -0.00033881178 0.54100001 4286479491
-0.076017976 -0.00033881178 0.54100001 4286413698
-0.075306252 -0.00033943806 0.54200006 4286347905
-0.074454002 -0.00033943806 0.54200006 4286413698
-0.073737547 -0.00034006432 0.54300004 4286413698
-0.072883725 -0.00034006432 0.54300004 4286479491
-0.072162554 -0.0003406906 0.54400003 4286413698
-0.07130716 -0.0003406906 0.54400003 4286347905
-0.070451766 -0.0003406906 0.54400003 4286347905
-0.069596373 -0.0003406906 0.54400003 4286216319
-0.068740979 -0.0003406906 0.54400003 4286216319
-0.067885578 -0.0003406906 0.54400003 4286018940
-0.067030184 -0.0003406906 0.54400003 4285953147
-0.06617479 -0.0003406906 0.54400003 4285755768
-0.065319397 -0.0003406906 0.54400003 4285624182
-0.064582504 -0.00034131686 0.54500002 4285558389
-0.063725539 -0.00034131686 0.54500002 4285295217
-0.062868573 -0.00034131686 0.54500002 4285163631
-0.062011603 -0.00034131686 0.54500002 4284900713
-0.061154637 -0.00034131686 0.54500002 4284703334
-0.060187034 -0.0003406906 0.54400003 4284571748
-0.059222575 -0.00034006432 0.54300004 4284570978
-0.058153767 -0.00033881178 0.54100001 4284242013
-0.057091251 -0.00033755924 0.53900003 4284110427
-0.056035016 -0.00033630669 0.537 4283847253
-0.05498508 -0.00033505415 0.53500003 4283912531
-0.053840224 -0.00033317535 0.53200001 4283451463
-0.05280444 -0.00033192281 0.53000003 4282858299
-0.051774938 -0.00033067027 0.528 4281739818
-0.050751735 -0.00032941773 0.52600002 4280883739
-0.049829729 -0.00032879147 0.52500004 4280489751
-0.048910871 -0.00032816522 0.52400005 4280161300
-0.047995154 -0.0003275389 0.523 4280095507
-0.047172781 -0.0003275389 0.523 4279767055
-0.046261784 -0.00032691265 0.52200001 4279767055
-0.045440983 -0.00032691265 0.52200001 4279767055
-0.044534706 -0.00032628639 0.52100003 4279767055
-0.043715477 -0.00032628639 0.52100003 4279898641
-0.042813916 -0.00032566013 0.52000004 4280161552
-0.041915499 -0.00032503388 0.51900005 4280883476
-0.041099414 -0.00032503388 0.51900005 4281080855
-0.04020571 -0.00032440756 0.51800001 4281999640
-0.039315153 -0.00032378131 0.51700002 4282196760
-0.038502216 -0.00032378131 0.51700002 4282394139
-0.037689272 -0.00032378131 0.51700002 4282656541
-0.036876336 -0.00032378131 0.51700002 4282787612
-0.036063395 -0.00032378131 0.51700002 4282984991
-0.035250455 -0.00032378131 0.51700002 4282853405
-0.034437519 -0.00032378131 0.51700002 4282392854
-0.033689618 -0.00032440756 0.51800001 4282261783
-0.032811642 -0.00032378131 0.51700002 4282327576
-0.032060593 -0.00032440756 0.51800001 4281867025
-0.031246083 -0.00032440756 0.51800001 4282063891
-0.030490324 -0.00032503388 0.51900005 4281603338
-0.029674239 -0.00032503388 0.51900005 4282195475
-0.028913759 -0.00032566013 0.52000004 4283510303
-0.028150132 -0.00032628639 0.52100003 4283444508
-0.027330905 -0.00032628639 0.52100003 4283773473
-0.02656256 -0.00032691265 0.52200001 4283905059
-0.025791071 -0.0003275389 0.523 4284168747
-0.025016442 -0.00032816522 0.52400005 4284695861
-0.024238665 -0.00032879147 0.52500004 4284761654
-0.023457743 -0.00032941773 0.52600002 4284630581
-0.022673676 -0.00033004399 0.52700001 4284763450
-0.021927917 -0.00033129656 0.52900004 4285750345
-0.021175867 -0.00033254907 0.53100002 4282397730
-0.02041753 -0.00033380164 0.53300005 4282334506
-0.019652897 -0.00033505415 0.53500003 4282466092
-0.018881978 -0.00033630669 0.537 4284045903
-0.018104773 -0.00033755924 0.53900003 4286479222
-0.017289257 -0.00033818552 0.54000002 4286216050
-0.016501043 -0.00033943806 0.54200006 4286347636
-0.015677666 -0.00034006432 0.54300004 4286413431
-0.014823845 -0.00034006432 0.54300004 4286478711
-0.01399575 -0.0003406906 0.54400003 4286478711
-0.013140355 -0.0003406906 0.54400003 4286478711
-0.012284962 -0.0003406906 0.54400003 4286412918
-0.011429568 -0.0003406906 0.54400003 4286215539
-0.010574173 -0.0003406906 0.54400003 4286149746
-0.0097187785 -0.0003406906 0.54400003 4286149746
-0.0088633848 -0.0003406906 0.54400003 4286083953
-0.0079932706 -0.00034006432 0.54300004 4285952367
-0.0071263006 -0.00033943806 0.54200006 4285885804
-0.0062508993 -0.00033818552 0.54000002 4285818982
-0.0054017948 -0.00033818552 0.54000002 4286407006
-0.0045358287 -0.00033693298 0.53800005 4283841079
-0.0036830103 -0.00033630669 0.537 4284954154
-0.0028333371 -0.00033568044 0.53600001 4285412129
-0.0019868088 -0.00033505415 0.53500003 4285608477
-0.0011434251 -0.0003344279 0.53400004 4285608477
-0.00030375514 -0.0003344279 0.53400004 4285673500
0.00053491135 -0.00033380164 0.53300005 4285804314
0.0013730089 -0.00033380164 0.53300005 4285738521
0.0022111065 -0.00033380164 0.53300005 4285738521
0.003043483 -0.00033317535 0.53200001 4285804314
0.0038800081 -0.00033317535 0.53200001 4285935898
0.0047076675 -0.00033254907 0.53100002 4286200094
0.0055426206 -0.00033254907 0.53100002 4286265887
0.0063775731 -0.00033254907 0.53100002 4286464034
0.0072125257 -0.00033254907 0.53100002 4286529827
0.0080323238 -0.00033192281 0.53000003 4286398754
0.0088657038 -0.00033192281 0.53000003 4286464547
0.0096990839 -0.00033192281 0.53000003 4286333479
0.010532465 -0.00033192281 0.53000003 4286072108
0.011365845 -0.00033192281 0.53000003 4286203694
0.012199225 -0.00033192281 0.53000003 4286008373
0.013057195 -0.00033254907 0.53100002 4285681209
0.013892148 -0.00033254907 0.53100002 4285484857
0.014727101 -0.00033254907 0.53100002 4285353271
0.015532747 -0.00033192281 0.53000003 4285815107
0.016366126 -0.00033192281 0.53000003 4285945928
0.017199507 -0.00033192281 0.53000003 4282458129
0.018032886 -0.00033192281 0.53000003 4282392336
0.01883067 -0.00033129656 0.52900004 4282458129
0.019662479 -0.00033129656 0.52900004 4282458129
0.020455545 -0.00033067027 0.528 4283312922
0.021245467 -0.00033004399 0.52700001 4283773473
0.022032244 -0.00032941773 0.52600002 4283576348
0.022815876 -0.00032879147 0.52500004 4283378454
0.023596363 -0.00032816522 0.52400005 4283640343
0.02442031 -0.00032816522 0.52400005 4283837722
0.025196075 -0.0003275389 0.523 4285019679
0.025968703 -0.00032691265 0.52200001 4285347101
0.026789503 -0.00032691265 0.52200001 4285347101
0.027610304 -0.00032691265 0.52200001 4285740572
0.028376641 -0.00032628639 0.52100003 4285740572
0.029195869 -0.00032628639 0.52100003 4286003231
0.029957488 -0.00032566013 0.52000004 4286069024
0.030775145 -0.00032566013 0.52000004 4286332196
0.031592801 -0.00032566013 0.52000004 4286529575
0.03234813 -0.00032503388 0.51900005 4286859053
0.033164211 -0.00032503388 0.51900005 4287056432
0.033980295 -0.00032503388 0.51900005 4287188788
0.03479638 -0.00032503388 0.51900005 4287188788
0.035612464 -0.00032503388 0.51900005 4286728237
0.036498737 -0.00032566013 0.52000004 4286465065
0.037316393 -0.00032566013 0.52000004 4286267688
0.038134046 -0.00032566013 0.52000004 4285608475
0.039026611 -0.00032628639 0.52100003 4285279510
0.039845843 -0.00032628639 0.52100003 4285476889
0.04074312 -0.00032691265 0.52200001 4285411607
0.041643545 -0.0003275389 0.523 4286136352
0.042547118 -0.00032816522 0.52400005 4287057454
0.043371066 -0.00032816522 0.52400005 4288176952
0.044279352 -0.00032879147 0.52500004 4288703798
0.045104869 -0.00032879147 0.52500004 4289098556
0.046017874 -0.00032941773 0.52600002 4288177452
0.046844963 -0.00032941773 0.52600002 4288703546
0.047762685 -0.00033004399 0.52700001 4286136086
0.04868355 -0.00033067027 0.528 4286201879
0.049513783 -0.00033067027 0.528 4286333981
0.050439373 -0.00033129656 0.52900004 4285679142
0.051368099 -0.00033192281 0.53000003 4284100110
0.052299973 -0.00033254907 0.53100002 4282657809
0.053335059 -0.00033380164 0.53300005 4284305979
0.054376431 -0.00033505415 0.53500003 4285095495
0.055320881 -0.00033568044 0.53600001 4284109368
0.05626848 -0.00033630669 0.537 4283910186
